# .PCD v0.7 - Point Cloud Data file format
VERSION 0.7
FIELDS x y z
SIZE 4 4 4
TYPE F F F
COUNT 1 1 1
WIDTH 1367
HEIGHT 1
VIEWPOINT 0 0 0 1 0 0 0
POINTS 1367
DATA ascii
0.0012291905 0.16366515 0.82514375
-0.092400767 -0.0042878916 0.24102238
-0.041597541 -0.0030445422 0.21629283
-0.0018163917 0.057133142 0.41018191
-0.082133904 0.0086978627 0.246929
-0.039252855 0.012418709 0.30793092
-0.076160058 0.01135169 0.30168295
-0.031638816 -0.0075345761 0.17259856
-0.035579573 -0.0053498065 0.24987966
0.034538243 0.028991131 0.27542415
0.17854273 0.12760282 0.40220258
-0.032488536 0.0239229 0.28817034
-0.015184334 0.05554327 0.40290746
-0.040681064 0.058324572 0.39258546
0.013482912 0.05636571 0.38098162
0.10579249 0.051060893 0.33438769
-0.2223288 0.070112199 0.65221697
0.055427779 0.07500983 0.38516337
-0.061685711 -0.0097353477 0.13074429
0.15989961 -0.0086305132 0.16370346
-0.059190992 0.06412527 0.41766638
0.0266231 -0.039485157 0.085564069
-0.1060872 0.043977447 0.39183116
0.04953678 0.031958178 0.28051475
0.088846684 0.035696056 0.2784481
0.16747649 0.024340538 0.23474319
0.14120634 0.022667553 0.25452444
0.10564571 -0.021710439 0.093645394
0.15707187 0.044372328 0.28154472
0.087368973 0.010610299 0.22163607
-0.058822315 0.049534172 0.38749364
0.019265279 0.026554108 0.26502475
-0.21236728 -0.046618845 0.28327984
-0.089634635 0.050965592 0.37267101
-0.031613357 0.023083519 0.33503142
-0.20672877 -0.062356025 0.23884271
-0.19768754 0.064047813 0.69461912
0.16800538 0.034370184 0.24321057
-0.051059201 0.06182329 0.4163458
-0.039375916 0.059651762 0.39220679
-0.065930091 0.041169833 0.36211136
0.14136359 -0.0066897799 0.15135199
-0.037683476 -0.004345777 0.19653602
0.13813297 0.039179668 0.28409147
0.066408366 0.016594743 0.22084273
0.054782808 0.071052499 0.38017899
-0.14207229 0.013789161 0.33733219
-0.085001007 0.05546001 0.40281674
-0.1671021 0.053312063 0.38001394
0.014373526 0.00043457464 0.17921044
-0.17862229 -0.028623052 0.3246749
0.049996339 0.030969877 0.27648401
-0.065999128 -0.002834768 0.27544767
-0.13358596 0.0059977812 0.28986216
-0.12686397 0.029393449 0.31102121
-0.072919123 0.038997788 0.36468634
-0.051497895 0.066392429 0.4224022
-0.097917765 0.022096945 0.28464404
-0.11394121 -0.024236791 0.18147641
0.066223621 0.017891498 0.21786444
-0.0041819974 0.058564454 0.40846905
0.048048697 0.013629965 0.23694354
0.14128022 0.012733128 0.24768557
-0.018653553 -0.020040274 0.10291241
-0.089376837 -0.0074772034 0.21062917
0.046067338 0.050043095 0.34904423
-0.0084907087 0.0074985507 0.20301647
0.036029279 0.015364686 0.21395874
-0.017385906 0.00304685 0.20005067
0.062609032 0.050977934 0.31237546
-0.15460671 -0.0162233 0.39478099
-0.18248881 -0.037986923 0.36365995
-0.031415105 0.049857013 0.37895563
0.10937703 0.039344739 0.26878074
-0.15079488 -0.040744808 0.22646944
0.14512557 0.0041275104 0.27757832
0.18833388 0.014559275 0.21303305
-0.15132987 -0.032985885 0.3291294
0.044616058 0.021239208 0.22064905
-0.015380718 -0.012569805 0.15030934
0.13096099 -0.028151605 0.081761971
-0.056685265 0.054875035 0.39007843
-0.034283914 -0.025887178 0.087333448
-0.050265182 0.065515779 0.43597338
-0.074549988 0.033705764 0.49242893
-0.096918449 -0.024528576 0.36911005
0.14771628 -0.0083024288 0.26792079
0.13348871 0.039568048 0.28243127
-0.20068976 0.046792451 0.31924793
0.089140385 0.012789482 0.22128096
0.13095753 0.061370056 0.27843222
-0.12571022 -0.026862917 0.3838937
0.066420354 0.033915229 0.22989637
-0.13270411 0.021880871 0.28421792
-0.061667789 0.04207959 0.37313518
-0.18578267 -0.058708183 0.27301452
-0.23141116 -0.073823534 0.27801478
0.0066109383 0.029742191 0.28445148
0.14627206 -0.013606378 0.2827723
0.11776759 0.045758929 0.3122201
-0.047414657 0.0068859602 0.21819544
-0.085075647 0.047927737 0.37591767
-0.10310452 0.025310479 0.29600134
0.021048296 0.041434798 0.40535644
-0.012095318 0.055751245 0.4017064
0.19414636 -0.0084175542 0.1787578
0.0071359407 0.022540366 0.277302
0.021895181 0.048777796 0.40923616
0.026312526 0.052286677 0.40210012
-0.08056619 0.045279492 0.36880073
-0.17292134 0.015617603 0.2547645
0.16595013 0.029155632 0.27532861
0.049949914 0.041641828 0.28134397
0.062554047 0.042803138 0.31291291
-0.043623157 0.075926773 0.44743559
-0.09475477 -0.0012389858 0.1991657
0.119418 -0.016832896 0.26707304
0.026844345 0.028684063 0.31551266
-0.056256369 -0.039856479 0.0595604
0.11402642 0.051386498 0.33716953
-0.026358424 0.0044928058 0.20263159
-0.13740318 0.032214347 0.32754266
-0.010028449 0.040387005 0.32982814
-0.041917782 0.061497413 0.44353554
0.016775085 0.0023759245 0.22199972
0.014721689 -0.03316569 0.05085054
0.035090737 0.046476319 0.32175332
0.16618462 -0.057005417 0.061698314
0.16462356 0.041641612 0.28438312
0.064539433 -0.035111915 0.066613197
-0.094988309 0.037998632 0.37714815
-0.034932557 0.013532218 0.25214577
0.00066864968 0.030580871 0.29618526
-0.038298316 0.016713032 0.25552121
0.24359021 0.18444349 0.57352602
0.0057424097 -0.0064683468 0.20459042
0.089855611 0.1085081 0.48039812
-0.042461205 0.010355106 0.24161652
0.17128552 0.041594803 0.34030402
0.22710565 -0.039512955 0.1704365
0.0050591235 0.035319 0.26689225
-0.22558768 -0.03660455 0.25989708
-0.063635081 0.0085717449 0.20848897
0.0097808121 0.0083956355 0.22585006
-0.050013687 0.096982025 0.5972684
-0.23010665 0.072879836 0.64292645
0.08183901 0.088037007 0.39086014
0.19636254 0.0041908049 0.17415579
0.16701896 0.046009783 0.32477453
0.046178874 0.019591073 0.20015316
0.027649025 0.01486314 0.22303759
-0.0015449449 0.055181623 0.40760955
-0.15987456 0.0031127681 0.35501307
-0.012999523 0.0025783696 0.20201445
-0.0022620077 0.034176983 0.30306849
-0.070967123 0.039358724 0.36556232
-0.0671563 0.097771637 0.53214449
0.051531721 0.040039212 0.30519804
-0.13812213 -0.044812936 0.31907731
-0.079330489 -0.0013703424 0.18134338
-0.039224662 -0.0096451873 0.14580044
-0.04596867 0.071835898 0.43278778
0.13156036 -0.0075339093 0.14073092
-0.055657592 0.043724928 0.35889244
0.0024930013 -0.056264222 0.093871333
-0.22349645 -0.040400095 0.34754014
-0.04646669 -0.052672762 0.033548158
0.060517184 0.035667866 0.2876538
0.044712629 0.034660932 0.29194814
0.13147525 -0.062804669 0.034927923
0.14906508 0.022875326 0.24848522
-0.052828815 0.053452857 0.39776754
0.036895249 0.028007276 0.26812986
0.067031346 0.046340484 0.32603276
0.12443548 -0.030472772 0.079339541
-0.051831719 0.05278109 0.39796877
0.0277346 -0.050359234 0.091669999
0.10221615 0.040870052 0.29637352
-0.10449532 -0.01275357 0.16361292
0.096899115 0.052471012 0.32863924
0.049166016 0.042342074 0.32151341
0.088205941 0.047260586 0.32183236
0.017527563 0.068178453 0.41878605
-0.010341042 0.057380073 0.38283333
-0.045779813 -0.011551872 0.18942228
-0.035426658 0.0058791526 0.25132659
-0.0078038452 -0.0015370966 0.19438821
-0.036559787 0.0048030089 0.25643715
0.048137814 0.020700838 0.21595007
0.022812696 0.030443989 0.24824817
0.0089976126 0.010086426 0.22687562
0.049699884 0.030476106 0.29536211
-0.053723808 0.00019592106 0.24724805
0.1074364 0.052973401 0.27005389
0.074531414 0.029631462 0.22790432
0.021921825 0.069548652 0.42783332
-0.059118293 0.045028705 0.35703284
0.041157871 0.0042930003 0.19811173
-0.015264917 -0.029006012 0.092087358
0.022927934 0.0043104105 0.20944905
0.036946766 0.047210719 0.34419498
0.12610431 -0.030687151 0.081195243
0.042413197 0.05879863 0.38851085
0.16862091 0.036325116 0.25825286
0.16870511 0.033878375 0.24418691
-0.025167748 0.0049077142 0.25712386
-0.019612921 -0.0031079738 0.16646127
-0.14465395 0.13299637 0.74885434
0.058897179 0.013678099 0.16692182
0.091348603 0.05265177 0.34639794
-0.017760793 0.061179504 0.39987612
0.12509575 0.05440766 0.32557562
0.022526646 -0.03570028 0.075480901
-0.033191979 0.017694177 0.27973521
0.01021305 0.026823798 0.26845881
-0.06523636 -0.071805775 0.14989036
0.017635837 0.0051482362 0.21441942
0.045250922 0.03547506 0.29210761
-0.054721836 -0.027844848 0.10024731
0.13375179 -0.013045468 0.25061685
0.030678945 0.044520386 0.33233726
0.067609824 0.046499595 0.32641149
-0.014070185 0.012456387 0.22979607
-0.10428178 -0.061508477 0.15752718
-0.092312947 0.0486633 0.35322183
-0.0098929713 0.040070537 0.33252439
0.11510802 0.06329561 0.25610358
0.0078426637 0.03016624 0.27101332
-0.054273356 0.0012053167 0.24796374
0.05355271 0.045775469 0.28380069
0.00062342262 -0.044707604 0.089105323
-1.9760882e-06 0.054996591 0.40775362
-0.12245553 -0.063607991 0.2517167
-0.054421984 0.055334143 0.44524348
0.025038203 0.048395891 0.3483057
-0.18518417 0.058229461 0.45166707
-0.095018424 0.018027116 0.31968445
0.10342123 0.079012349 0.44403496
0.10267007 0.079972006 0.44455421
0.10579369 0.041156154 0.28051579
0.047786769 0.019113671 0.23038119
-0.081216477 0.13632455 0.81598431
0.054061484 0.23589119 0.94259959
-0.060353942 -0.010998928 0.21978146
-0.076520883 -0.005112512 0.21676549
0.11572973 0.11638582 0.47002217
0.08918488 0.012870511 0.22203645
-0.056537449 0.064253949 0.41461417
-0.083626583 0.056925427 0.39182156
-0.092831194 0.05242132 0.37257037
0.016479073 0.014820386 0.29443935
0.12441762 0.050607361 0.31954736
0.04353733 0.029071208 0.27093792
-0.18358678 0.048369586 0.3679648
0.10476311 -0.037306756 0.077063337
-0.16950512 0.02113899 0.29531321
0.09197706 -0.049718652 0.069446586
-0.084281169 0.057676621 0.39194027
0.045623329 0.033931181 0.29207775
-0.039867196 0.044398561 0.4058193
-0.22488813 -0.040669091 0.34981835
0.04689813 0.043330248 0.32521489
0.13417776 0.027893918 0.32440305
0.06826403 0.040174585 0.29970077
0.14736828 0.039934665 0.28035235
0.12547284 0.019228 0.27259362
0.073077731 0.012754554 0.20574325
0.056931045 0.020651145 0.23264842
-0.048716027 0.06566152 0.43593365
-0.084196955 -0.05811204 0.19252625
-0.22125594 0.071329989 0.58134383
-0.030866304 0.041097328 0.38154426
-0.036525074 0.01191373 0.27628458
-0.18342562 -0.0079035414 0.30090806
0.12154541 0.036561236 0.24346255
-0.12838998 0.053989794 0.3793112
0.16955106 0.041972343 0.35837063
0.17663403 0.051041309 0.3423149
0.18293492 0.044450831 0.28858805
0.010190258 0.045589097 0.28770462
0.027102711 0.022682011 0.31372789
-0.10185587 0.027399916 0.3896625
0.17119472 0.04366073 0.35383818
0.22301573 -0.045450389 0.18084379
0.13298066 0.061751727 0.36348394
0.16154769 0.051854257 0.34510925
-0.065636538 0.040847182 0.36253747
-0.083186865 0.011377103 0.23852117
0.19614734 0.056877911 0.35091192
0.011499616 0.048559844 0.40965757
0.0028229109 0.033476081 0.26223123
0.037080385 0.031259265 0.28519484
0.034338105 0.038628574 0.28140342
-0.1253829 0.020115657 0.30997154
-0.027915474 0.028123319 0.29190302
0.017042575 0.072677672 0.56747758
-0.044444937 -0.001721696 0.21001039
0.072428919 0.054981012 0.36078879
0.21706456 0.05919442 0.22535512
-0.068927675 0.011039751 0.2161997
-0.092003867 0.012616244 0.34475437
0.26663557 0.079797097 0.27847824
-0.089981705 0.0043041199 0.18971902
-0.14674938 -0.0013546806 0.37801868
0.00031819401 0.010519484 0.19243976
-0.027583316 0.014987047 0.16353887
0.26920363 0.092898823 0.39512005
-0.11014569 0.028762147 0.33757496
0.036008678 0.01493216 0.21578206
0.033917487 0.031563051 0.29303488
0.026674964 0.029032415 0.20959491
-0.083405361 0.056952003 0.67962188
0.27179813 0.076786734 0.43474209
0.11760431 0.061413467 0.33875817
-0.13501638 0.038860861 0.41254336
0.24325883 0.096788056 0.45816064
-0.12061138 0.00026592909 0.3153123
0.026336184 0.0094322888 0.1960441
0.028405752 0.014179243 0.22252651
0.034597285 0.02161105 0.21564651
-0.12818669 -0.0062456559 0.35983434
-0.12902668 -0.031571366 0.25296962
0.03309809 0.015211689 0.19062607
0.06287241 0.047110524 0.26130414
0.21393472 0.066827573 0.26676473
-0.057528511 0.016318806 0.21374214
0.027756177 0.03832965 0.27809519
-0.12244391 0.051470287 0.49612284
0.29962704 0.060259212 0.46095374
0.087149575 0.11373433 0.68545675
0.093198486 0.048288759 0.29304004
-0.17455697 0.059163403 0.5714097
0.11845353 0.039414652 0.19623639
0.034329936 0.030988289 0.32344508
0.071359329 0.0058119423 0.1865717
0.13793039 0.041336238 0.28011695
0.013164182 0.020808084 0.28602803
0.14885585 0.023198495 0.24826825
0.055974953 0.037439097 0.29788539
0.12941499 -0.027376471 0.26904336
0.11816606 -0.015420442 0.10603555
0.04354335 0.028277582 0.18842413
0.28442419 0.088090502 0.32668421
0.025906241 0.021953817 0.16624583
0.11010541 0.037644278 0.19118215
-0.063948818 0.058908988 0.40595272
-0.0090434672 0.018393734 0.18110509
0.171156 0.079564102 0.46517166
0.011119279 0.022679321 0.15549797
-0.036230434 0.021030122 0.27555373
0.11335141 0.0420339 0.22295895
0.24987505 0.14494111 0.95071793
0.41791171 0.16305682 0.98640889
0.30191323 0.08750926 0.39803472
-0.018609107 0.075371712 0.62846959
-0.1416937 0.0058597778 0.23170882
0.20273511 0.051852699 0.32444504
-0.058207512 0.011149261 0.13915955
0.19011717 0.0628924 0.25930756
0.27403587 0.081216358 0.44939843
-0.15215756 -0.028460667 0.40894231
0.13900833 0.043044414 0.20249264
0.14864789 0.0043229796 0.25196737
0.2116809 0.064631656 0.35320097
-0.2123255 0.051187709 0.5601083
0.031086123 0.025827054 0.16552402
-0.086551391 0.048228368 0.43819463
0.41065645 0.1407896 0.91423243
0.17294422 0.058013763 0.25393257
0.076357208 0.033037368 0.37155315
0.21635136 0.062730871 0.32755134
-0.030524936 0.016957058 0.13647643
0.29554507 0.088885672 0.41859606
-0.089855239 0.016030103 0.3329215
0.11033988 -0.0039752722 0.23667738
-0.17846587 0.055759862 0.45107433
0.158999 0.046269424 0.22180328
-0.019848393 0.067711227 0.61292875
-0.032954551 0.041696873 0.39350799
0.099977396 0.032408338 0.15796199
-0.04770739 0.010336285 0.13663411
0.12707461 0.061549135 0.33689752
0.23288122 0.090277717 0.41748565
-0.087731816 0.015159446 0.28227752
0.077099629 0.032675937 0.18153042
-0.013915803 0.051745459 0.28799218
0.29024795 0.0096014412 0.23483476
-0.32143864 0.11353293 0.60447013
-0.30158448 0.078454658 0.61981803
-0.0099553028 0.054286037 0.4042016
-0.024173044 0.019154744 0.24442928
0.1918136 0.070562549 0.3137641
-0.062978379 0.015229095 0.17317395
-0.05794378 0.020189209 0.20935459
0.10328119 0.037879094 0.19928007
0.19688022 0.056250058 0.22127973
-0.097402945 0.052936595 0.55252355
-0.14655828 -0.024071533 0.35612455
0.02928873 0.021403003 0.17939962
-0.09199515 0.00091899349 0.20206183
0.19259319 0.050736751 0.20271201
0.11789789 0.038536914 0.19151773
0.099461831 0.036563694 0.19386715
0.21789202 0.054700468 0.23575911
0.025207987 0.056587998 0.40636879
-0.099017166 0.065279789 0.47911066
-0.044400334 -0.036400873 0.48039964
0.035526641 0.075142123 0.45958099
-0.040633556 0.059115041 0.45118499
-0.13276444 0.061593931 0.47348049
-0.11566537 0.00804142 0.20589091
-0.087315112 0.03327534 0.34103394
-0.077748507 0.0082366969 0.18668135
-0.044479132 0.01536943 0.17862195
-0.057492476 0.024141198 0.22014372
0.19611938 0.054152161 0.18003267
-0.0088889962 0.020926207 0.15258025
-0.13541493 0.014171567 0.22515938
0.072411172 0.027943933 0.19196111
-0.039108049 0.016998002 0.28299269
-0.011339858 0.10052969 0.73773587
-0.091749862 0.011280393 0.34312934
-0.13499348 0.041840695 0.44338053
-0.0008467111 0.044430822 0.40107933
-0.035363037 0.018812886 0.16134217
0.19744194 0.058921792 0.22750181
-0.18043163 0.043030027 0.58403116
-0.02734532 0.0031311067 0.20140909
0.1152091 0.11809044 0.47223881
-0.11312941 -0.01106831 0.32030115
0.031004926 0.013254993 0.21084462
0.12805972 0.060057126 0.32855549
0.088786989 0.057259623 0.35732925
-0.153723 0.0029767605 0.34271178
0.1495752 0.020663561 0.23084584
0.073892012 0.049962975 0.34006065
-0.16893251 -0.0065882774 0.4240492
0.25532299 0.090277284 0.41591972
-0.065745547 0.022935828 0.23716411
-0.16243924 -7.3770265e-05 0.2278043
-0.021972429 0.029195582 0.27179432
-0.058646146 0.016469311 0.27802402
-0.13333488 0.13516861 0.76335907
-0.14041764 0.070933655 0.64689451
-0.064560629 0.018061288 0.1829935
-0.091904774 0.0092141349 0.20725335
0.026411837 0.012143334 0.20655438
0.15909156 0.1175298 0.40992373
-0.1221872 -0.037028592 0.24190891
0.077760838 0.056983367 0.29087526
-0.10866947 0.02044031 0.40016279
-0.094989963 -0.02293206 0.22290123
-0.097640388 0.023393137 0.32562217
0.25880912 0.067442395 0.2389258
-0.055716559 0.040936835 0.365179
0.1795985 0.054868031 0.25711259
0.18358587 0.068697855 0.30438328
0.055819366 0.023162687 0.11356077
-0.064306155 0.047390275 0.37531275
-0.00099977828 0.019782279 0.16943224
0.03136871 0.026714407 0.16831046
-0.070273288 0.0061096041 0.11908714
0.14422472 0.13102449 0.81948769
0.18068731 0.060838576 0.34612954
-0.018970046 0.057985902 0.29672492
0.21264035 0.087902799 0.44485629
0.11342435 0.040847279 0.27661717
-0.021861505 0.021361761 0.28160119
-0.113709 0.095336445 0.75792992
-0.0018251723 0.018981049 0.092960276
-0.12641414 0.034622774 0.40580112
0.088344358 0.051446244 0.36442286
0.0046036402 0.09061604 0.53825289
-0.23485245 0.054401699 0.53931648
-0.046136118 0.084965646 0.54641491
-0.139761 0.0167254 0.28595006
-0.044447742 0.050038353 0.40359619
-0.090198979 0.043698248 0.39539266
0.04281456 0.090472527 0.51955742
0.039316516 0.052218098 0.35521436
-0.045680076 0.060548306 0.45017755
0.22030547 0.067526631 0.26724762
0.053427942 0.0030692902 0.45169416
0.24387093 0.072058231 0.27128467
0.041841839 0.058060572 0.41040093
0.20203668 0.054883078 0.22939222
0.13848391 0.058094077 0.30230856
0.074754864 0.12694408 0.82868654
0.023663916 0.057447188 0.38288036
0.1251267 0.043120373 0.21671209
0.21913795 0.063009277 0.26337227
0.12537289 0.042488515 0.21646172
-0.034562524 0.0035997315 0.26429859
0.20367929 0.050325949 0.32274655
0.28092742 0.089905538 0.34427404
0.26659822 0.091155164 0.3770411
0.13562958 0.034244306 0.22353129
0.16115111 0.045628592 0.19655946
-0.06683518 -0.0320573 0.04071537
-0.15980728 -0.024379591 0.26383093
0.25205216 0.069053672 0.24607326
0.20318323 0.052964076 0.32466805
0.033421684 0.031694431 0.32492024
-0.10231867 0.01777577 0.2432601
0.20832664 0.088097595 0.44521496
0.23031469 0.096671008 0.72326398
0.27065817 0.074357755 0.27288651
0.26997891 0.072920606 0.48368621
0.27537084 0.092455998 0.36861432
0.33837181 0.15256539 0.98631525
0.20521735 0.0665638 0.26574308
-0.18254405 0.066458054 0.62541759
-0.12238775 0.060827225 0.59487772
-0.15127166 0.0087932646 0.33464813
0.30821589 0.099065766 0.41495839
-0.088972844 0.029326761 0.31964314
0.050117955 -0.075437643 0.022677142
-0.082334876 -0.0064648185 0.12984399
0.027524527 0.054971572 0.40736198
-0.013655295 0.058094159 0.39954484
-0.013211383 0.0034166486 0.19336939
-0.11537608 0.031086201 0.40325329
-0.060880084 0.013302736 0.14247987
-0.034663387 0.072181977 0.71378195
0.13715115 0.038232617 0.16812724
0.047047511 0.034779541 0.29631662
0.037471022 0.026265597 0.17869739
0.26875144 0.096250027 0.40020326
0.21692613 0.1344064 0.76228869
-0.079435699 0.020781331 0.24605422
-0.001855728 0.046992518 0.40613645
-0.091838613 0.0218288 0.33068764
-0.14354473 -0.0075142658 0.21554041
-0.16012192 -0.013207497 0.41684356
-0.13970311 0.014069895 0.36567277
0.1100468 0.058278099 0.32727015
-0.064768799 0.043969601 0.36906344
0.075375855 -0.0047130189 0.056696661
-0.020360865 0.064199522 0.43244636
-0.068281412 -0.0069321431 0.19569631
0.0094224196 0.041431759 0.37903452
0.058449253 0.035317559 0.26683125
-0.17761587 0.038667705 0.33201921
0.15975535 0.024787063 0.23471026
0.0028974449 0.042608511 0.33218935
0.12473266 -0.0014758374 0.26853189
0.18684715 0.11983088 0.40101728
0.10825963 0.058419406 0.26200151
-0.014683341 0.0076011722 0.18538816
0.0099522872 0.083834484 0.59410697
0.041654229 0.062251069 0.41267011
0.031943351 0.033194013 0.30142948
0.1292648 -0.013557117 0.22319055
-0.089924902 0.022264456 0.2783936
0.07222525 0.028153108 0.14081252
-0.031068143 0.016958516 0.11052886
0.1615482 0.048825115 0.2147456
0.047461368 0.028868215 0.18687806
0.19711645 0.06297949 0.26487607
0.15526544 0.077174507 0.38887271
0.0108937 0.023562688 0.15569071
-0.059233394 0.011484445 0.14240873
0.15283991 0.039995816 0.20943598
-0.051213462 0.057933446 0.43155167
0.14138694 0.077236682 0.42371354
0.053045023 0.045735843 0.27333775
0.18649252 0.057621837 0.31988963
0.041580923 0.025596976 0.286787
0.18066175 0.059922524 0.25790337
0.19368787 0.05742852 0.21807458
0.20274368 0.053637512 0.3257184
0.19799098 0.050697558 0.20680681
0.17123014 0.078656755 0.4654721
0.2005561 0.06963373 0.3191613
-0.18738171 0.052343644 0.53056777
0.20774861 0.091652289 0.469096
0.058085851 0.025675513 0.13518251
0.11716513 0.020872755 0.2217197
0.012165055 0.030845087 0.3527461
0.15079592 0.04228688 0.19085272
-0.1544335 -0.012735222 0.38641363
0.075910978 0.033873126 0.19500971
0.11863042 -0.012315356 0.23848301
-0.020785769 0.01915055 0.15964776
0.11944899 -0.014277394 0.23769072
0.2471237 0.083751693 0.28354922
0.14265177 0.051898353 0.25077143
0.13069052 0.070093736 0.25551564
0.11243562 0.012260784 0.22654456
-0.10377893 -0.0095835654 0.19746868
0.072800517 0.02756333 0.18558592
0.061684184 0.023495335 0.19082828
0.21222846 0.0650969 0.26561752
0.035380498 0.019989425 0.17223851
0.18422425 0.050762378 0.2170523
0.00026215671 0.033788841 0.34973618
-0.17916648 0.062109891 0.60723829
-0.12971438 0.0013720973 0.22651899
0.011711241 0.0820852 0.27428764
-0.12155063 0.029862948 0.32611743
0.048887573 0.019194391 0.098282948
0.25124902 0.09622898 0.49873301
-0.11973447 0.0042963768 0.4162882
-0.10069703 0.027519602 0.29319435
-0.053763226 0.030430326 0.36929294
-0.087728247 0.021984428 0.28423271
0.021387421 0.020653542 0.16880523
-0.027675632 0.016007733 0.26479244
-0.01711737 0.01060963 0.19347253
0.031938966 0.026206927 0.18737279
-0.017226024 0.011154377 0.19367751
-0.06587182 0.0076177348 0.22057728
-0.19613235 -0.042607691 0.1976551
-0.095024228 0.098109268 0.69929481
0.15151088 0.07243228 0.45611164
0.016801963 0.063627675 0.39117762
0.060520306 0.029939152 0.16499433
0.27320763 0.08288686 0.33813825
0.11750635 0.032977637 0.21806954
-0.011561306 0.039675839 0.30539498
0.11455811 0.038488861 0.19571391
-0.088669159 0.029350197 0.14201231
0.25102347 0.098394282 0.49831173
0.056838755 0.023520734 0.17396025
0.13819146 0.032683741 0.23256139
0.041986249 0.061178308 0.41037339
-0.041748617 0.025454061 0.20629987
0.043469518 0.021592664 0.1327412
0.006870362 -0.020428427 0.21808259
0.048980255 0.017473867 0.21394894
-0.10403311 -0.0067855213 0.26496252
-0.1258387 -0.03660769 0.27973136
-0.028874015 -0.007994147 0.14322349
-0.14386332 -0.0098667415 0.2489776
-0.0068433885 0.02211128 0.26021767
0.054885231 0.021197176 0.20841947
0.020480644 0.013878052 0.19526286
-0.089967929 0.03719357 0.36875153
0.22175834 0.055905469 0.23148185
0.0032466529 0.046026561 0.39715013
0.12337641 0.021191191 0.2177655
0.26194072 0.087470956 0.33378348
-0.062416684 0.015026394 0.28511974
-0.17631909 -0.0088509424 0.27763358
0.029860307 0.017026357 0.1811107
0.040596005 0.02965044 0.21056792
0.057942294 0.031921778 0.23227625
-0.06823694 0.0040895208 0.21631974
-0.046242435 0.048631966 0.43531013
0.040566083 0.022028817 0.17637199
0.10818541 0.038292143 0.19632988
-0.063084833 0.016452296 0.28548104
0.20913634 0.093732215 0.45846343
0.0083989631 0.02301617 0.17041521
-0.09280768 0.058443405 0.54396653
0.16715971 0.10393059 0.47103563
0.17152026 0.079384997 0.46288449
0.0052161352 0.012298793 0.18143831
0.13372596 0.056539275 0.29357496
-0.068508565 0.0037354927 0.12853386
0.014157121 0.017205574 0.096346281
-0.020685866 0.018278265 0.11657594
0.20034595 0.076382913 0.32446894
0.068962328 0.027616868 0.17943679
0.1135533 0.016075745 0.22085509
0.22138177 0.087911576 0.48528478
0.25181976 0.067346714 0.24361299
0.16185272 0.11469821 0.76256806
0.25269037 0.070363842 0.24681318
-0.014659888 0.041033503 0.33008313
0.13749081 0.078174122 0.44833821
0.30576324 0.10292476 0.4665924
0.077620454 0.032325547 0.18147673
0.04034102 0.03223411 0.21270326
0.0081877485 0.0089991894 0.15896265
-0.00033780659 0.014671016 0.18353872
0.030893389 0.014419278 0.16857718
0.076177828 0.024738917 0.19194764
-0.054372646 0.0074550835 0.12399705
-0.093463771 0.0079011321 0.19304794
0.046718761 0.10134964 0.68412089
-0.17619278 0.064640418 0.61714864
0.2893286 0.19115873 1.0871612
-0.18713032 -0.0031396695 0.26436338
0.081854746 0.065301977 0.40352011
-0.03176719 0.07981924 0.63442057
-0.10315151 0.01753095 0.33708975
0.0090313163 0.018645847 0.17104936
0.05050135 0.026850717 0.16009711
0.0091987746 0.045286138 0.26306102
0.031042326 0.012458458 0.19899747
0.037890412 0.017101578 0.19890966
-0.033379715 0.017233381 0.16254565
-0.016805032 0.084503599 0.6286943
0.19389461 0.18486117 1.0686777
0.1833359 0.054322939 0.33739817
0.092973866 0.13666567 0.90184534
0.13587125 0.00020103133 0.2150391
0.045298085 0.029479761 0.18834516
-0.048098013 0.011886653 0.1113526
0.12418585 0.03575287 0.16181372
0.014343686 0.030915972 0.34925053
0.035498109 0.018599687 0.18837437
0.059074428 0.028339185 0.17202406
-0.038024589 0.018678948 0.16977876
0.13985379 0.052267514 0.2569235
-0.097991779 0.026289409 0.38224733
0.021665303 0.011051962 0.20525648
0.15046309 0.11733033 0.77509189
0.0057869079 0.052125596 0.41593465
0.13818315 0.03649823 0.22259124
-0.028295547 0.012311569 0.17868775
-0.19117865 -0.041470129 0.31577808
0.18668044 0.048542287 0.33219975
0.12762912 0.042026158 0.20522447
0.069729425 0.031189919 0.2001483
-0.01799986 0.016336111 0.11605346
0.0049147755 0.020581121 0.2198589
0.037075244 0.023611654 0.17890178
-0.16557351 -0.0067977738 0.39462596
-0.14805669 0.024308689 0.25364459
-0.075500019 0.006806917 0.18625385
0.03679727 0.012706037 0.18915448
-0.083214849 0.086383693 0.66845131
-0.15775362 -0.041311063 0.33940643
0.25581625 0.064860649 0.24951296
0.10807545 0.045934267 0.27853769
0.18459694 0.088507749 0.40823102
0.14997724 0.078365244 0.43919745
0.010716479 0.036840159 0.29358229
0.15543303 -0.0038193136 0.31325024
0.1249902 -0.014923437 0.25485718
0.14924651 0.039542437 0.16078897
0.15942046 0.045226 0.20812099
0.10041296 0.10241844 0.5642426
0.19618095 0.054538418 0.35153815
0.064091876 0.0085713873 0.19782326
0.05864659 0.010734223 0.23337635
0.14336608 0.038181625 0.21752007
0.087501734 0.027032003 0.14911102
-0.16684154 -0.020351335 0.33263901
0.18091513 0.060202442 0.3456316
-0.054769572 0.0074621425 0.130061
0.16190319 0.052084312 0.21339434
-0.16981222 -0.030918108 0.40281811
0.032607678 0.092662588 0.66011721
-0.11416405 0.039862413 0.59949917
-0.027832361 0.032459065 0.27996156
0.0085354103 -0.028325738 0.24426398
-0.076937586 0.0078330915 0.19530942
0.13364056 0.057410985 0.29450563
-0.060226973 0.012126172 0.14207856
-0.026333839 0.023349298 0.25534359
0.041743912 0.02379881 0.13134429
0.14263165 0.049418427 0.24894622
0.14153537 -0.023906831 0.24465646
0.21440963 0.062254924 0.32798067
-0.059955288 0.012636853 0.15082474
0.03823654 0.043134805 0.40133536
0.11661191 -0.01852289 0.23795426
-0.051785938 0.034567278 0.30666298
0.21728972 0.091140807 0.41835931
0.039056394 0.043447889 0.29862267
0.041644257 0.028325003 0.18141647
-0.053972363 0.0068340153 0.12432073
-0.16224919 -0.0034942576 0.40777534
0.088876575 0.059333641 0.36626101
0.28140593 0.076906599 0.27541822
-0.060443208 0.0097428905 0.1166687
0.16490641 0.046966866 0.21557385
0.069625087 0.025638195 0.18963282
-0.17285506 -0.062670164 0.23968303
0.099794514 0.0091401292 0.28914937
0.025971254 0.052562628 0.36897647
0.045436885 0.033092137 0.34816617
0.074415758 0.033394672 0.23445702
-0.13754979 -0.030443287 0.31484303
0.032918431 0.0033536612 0.18749698
-0.013145537 0.039651655 0.30185011
-0.064574666 0.002754106 0.21656066
0.19607577 0.051853798 0.21348721
0.17902523 0.082770124 0.43574315
0.19377089 0.089357279 0.4547905
0.22093213 0.10473024 0.5577991
0.080326453 0.029926578 0.16146944
-0.1740322 -0.060622554 0.25554225
-0.08766675 0.024321821 0.24421909
0.03782896 0.026930308 0.17047983
-0.13365833 0.047232162 0.36437309
0.11551998 0.0059561147 0.22210622
0.023638725 0.038063876 0.29973617
-0.037338171 0.011302228 0.1773717
0.047892146 0.019718112 0.23774898
-0.18172984 -0.0829539 0.20158844
0.038799971 0.06314043 0.39594495
0.016243396 -0.063578069 -0.012324649
-0.12598352 0.036743268 0.33125082
0.12055613 -0.0020414898 0.22508934
-0.051341321 0.0098644244 0.24619067
-0.061238974 0.035472002 0.35911417
-0.1523916 0.15567045 0.79486179
0.067264907 0.032517117 0.2046039
0.218584 0.14538975 0.7881487
-0.17986698 0.061537158 0.60590982
0.14085998 0.0034831811 0.25523192
0.12231178 0.029531118 0.1464074
0.068873808 0.025524748 0.13570692
0.033522852 0.025668615 0.12003306
-0.11120943 0.0057223937 0.22906804
-0.11445606 0.029754689 0.40841928
-0.038054429 -0.002441555 0.19336957
-0.10220098 -0.0016451989 0.27478677
-0.018063635 0.0036435877 0.20082401
0.12337311 0.1411377 0.85520315
0.20585383 0.064623229 0.26355824
-0.046386261 0.03656194 0.44207534
-0.072226472 0.0055430788 0.16000789
0.08231502 0.105397 0.78689432
0.20699316 0.028991995 0.26579559
0.090580963 0.03933242 0.26833513
0.27647582 0.0050603356 0.24812183
0.2069955 0.075508103 0.31871763
-0.030959416 0.045525894 0.40436876
-0.020241436 0.011211227 0.19936888
0.11664301 0.068500325 0.37940463
0.025374047 0.021095868 0.11781193
0.092618406 0.064791247 0.43942571
0.15322016 0.055313349 0.2509414
-0.022467276 0.019386634 0.15819871
0.13592289 0.039648842 0.20372494
0.10577982 0.017692197 0.26244694
0.040566243 0.028700935 0.30445528
-0.17249835 -0.061759047 0.24432598
-0.17243959 -0.061725244 0.24425574
-0.11732397 0.014172186 0.35288042
0.052834123 0.025248647 0.16089824
-0.011385545 0.06731987 0.37974861
0.35004434 0.13896158 0.79700822
-0.13641961 0.012964548 0.22020382
0.11371756 -0.0085699847 0.23236151
0.091933064 0.14545071 0.88042504
0.30576804 0.12612626 0.79025567
0.16684571 0.051323984 0.22245383
-0.016166307 0.0092206942 0.1858955
0.14809759 0.076531701 0.42466077
0.43789631 0.17191614 0.96225113
3.3286648e-05 0.075076394 0.46936807
-0.10896338 -0.055903658 0.14987296
-0.20256381 -0.0093631204 0.47354808
0.13567601 0.074034818 0.39195082
-0.0059845736 0.054166898 0.40278482
0.084099635 0.057943419 0.39998624
0.072691984 0.022708468 0.19706094
-0.075020112 0.0068876091 0.17246917
-0.052646544 0.030075615 0.36882657
0.1836112 0.046798907 0.18993004
-0.03689206 0.0047496953 0.26535627
0.094588496 0.070783325 0.43459141
0.15135467 0.042004254 0.1905672
0.0057521397 0.020241229 0.21857312
-0.10378171 0.035766833 0.31166065
0.046143889 0.053431202 0.3624568
0.17150916 0.057981357 0.25934157
0.19077127 0.060852915 0.25693342
0.11655381 0.038738202 0.2228781
0.1135705 0.063458428 0.36559987
-0.058774855 0.0090888571 0.11601429
-0.041225784 0.035528384 0.32978573
-0.036045402 0.017989833 0.1660208
0.032518867 -0.04669321 0.070242554
0.034829151 0.047259219 0.37012529
0.032113206 0.020714616 0.17851214
0.033128336 0.040425185 0.28269303
0.11103316 0.01188354 0.22726484
0.028851803 0.01708433 0.2106833
0.12346764 -0.015990684 0.23662934
-0.13077162 -0.0029824425 0.18391028
-0.017126685 0.033106375 0.38427037
-0.088680401 -0.021126794 0.26209861
0.037450574 0.031303301 0.21284662
0.18114685 0.059923705 0.34556988
0.061650239 0.028920459 0.18452436
-0.088971496 0.0071408506 0.16364725
-0.0028776661 0.02334209 0.17186137
-0.11188378 0.039728183 0.45217669
0.14666039 0.066353999 0.32413504
0.11768356 0.06168852 0.33898318
0.08050289 0.027314758 0.18293349
0.13948113 0.054559298 0.26879686
0.065390632 0.030435659 0.18286136
-0.13299036 -0.022579065 0.4164173
-0.17584318 0.059618164 0.57299846
0.072339572 0.03385118 0.20133011
-0.0062955273 0.04188339 0.33169317
0.22781253 0.071611777 0.27557653
0.10109322 0.066166975 0.44238934
0.11872275 0.03924197 0.19613098
0.046862327 0.033060063 0.293239
-0.085896701 0.053573027 0.40366015
0.13696268 -0.0075461022 0.15544061
0.094684124 -0.049839206 0.083775505
-0.11766268 0.04495462 0.36793524
-0.17425649 0.078765281 0.73263019
-0.05464619 0.036769085 0.38082936
-0.034124214 0.017590798 0.1623826
-0.0027627924 0.03110932 0.25098473
0.26513487 0.076305017 0.27464953
0.27357 0.092977777 0.37740776
-0.096272804 0.042223636 0.43661898
0.18749242 0.056131069 0.3176482
0.058825932 0.025438095 0.14417616
0.082658172 0.05861016 0.39910516
0.10690673 0.10661625 0.83545452
-0.043274775 0.0082136653 0.20832679
0.071802966 0.03102123 0.17522453
0.26401082 0.075062476 0.27297369
0.14273368 0.052015301 0.25936076
0.11372194 -0.0068486924 0.22107707
0.0039713252 0.04553875 0.34320447
-0.064775825 0.017559998 0.21575356
0.14027438 0.052135214 0.25826991
-0.03907099 0.023239108 0.29823428
-0.040714268 0.011114364 0.24237071
-0.13291126 -0.015366031 0.44354537
0.11238332 0.070883356 0.41451544
0.0073155756 0.048117958 0.34266117
0.12613402 0.02673535 0.26450384
0.2096969 0.16915813 0.4466531
0.084174097 0.036715925 0.2255547
-0.070639983 0.018002 0.15696125
0.042301338 0.069441669 0.44099844
-0.054071385 0.017474931 0.17911397
0.091860674 0.03009606 0.13824187
0.16703868 0.045692142 0.19485843
-0.048587199 0.03399244 0.43314192
0.12171227 0.068552293 0.44687137
0.25799248 0.09649203 0.4269107
0.14399405 0.053514838 0.25765043
-0.091374464 0.049596228 0.53927052
-0.030824387 0.016841019 0.11039964
0.17587075 0.082057625 0.43418276
-0.040293496 -0.0040648417 0.21347432
-0.044545013 0.046602596 0.38336164
-0.058107726 0.061242774 0.4219234
0.039388351 0.032373779 0.28888762
-0.010930009 0.040944465 0.32853651
0.040744752 0.031376753 0.28215256
0.045674596 0.038366195 0.29099572
0.15201381 0.07475391 0.38207796
0.16782807 0.083271511 0.46695924
-0.11499886 -0.060613196 0.1811669
-0.2631377 0.058022153 0.51364577
0.016829619 0.079214998 0.49102154
-0.0084192324 0.006473639 0.2141711
-0.00013259088 0.0073664305 0.20406921
-0.0079138419 0.0069487542 0.21428359
0.022710562 0.011707318 0.17333642
-0.1781249 0.01316857 0.29233536
-0.0041711545 0.052807398 0.41361561
0.090345629 0.011797859 0.22571036
0.00064072781 0.04836588 0.37019649
-0.069250777 0.089316428 0.52763051
-0.016991181 -0.012977806 0.12807892
-0.19011062 0.06980662 0.62360346
0.17056319 0.083619587 0.45075077
0.10042221 0.068217851 0.44174248
0.10862308 0.05242816 0.29780573
0.14942332 0.074543491 0.45885471
-0.30209458 0.076052368 0.69705868
0.0074491235 0.047809646 0.34325269
0.013065761 0.0050348239 0.18646164
0.063430868 0.05340882 0.34625679
0.12471542 -0.022107737 0.25247666
0.14580718 0.070628271 0.38788903
0.14440924 0.054117043 0.26653844
-0.044721086 0.046340473 0.44118711
-0.1372776 -0.015076937 0.35527027
-0.20034222 0.12345979 0.79665428
0.11773322 0.07065212 0.41491359
-0.097686343 -0.055145614 0.16697536
-0.021377744 0.025527922 0.50422949
-0.14067067 0.022541139 0.47839847
-0.13186152 -0.050161082 0.13498172
-0.14753523 0.0076742955 0.42277554
-0.04203764 0.037305359 0.33117154
-0.090186596 0.014264337 0.28421497
0.13827983 0.0087719318 0.21950455
0.049463362 0.039986655 0.28142634
-0.10926259 -0.018164812 0.2106704
0.061217092 0.019131683 0.17527153
0.13823225 -0.036490444 0.23472272
-0.042661723 0.101597 0.64430726
0.20865645 0.050046612 0.33258855
-0.11780339 0.0010120238 0.24157701
0.082106926 0.065178841 0.40398172
-0.036612961 -0.056821618 -0.068327881
0.15031376 0.053247642 0.25730565
-0.07698071 -0.0076237074 0.1380824
0.11925295 0.034468278 0.17239581
0.14050597 0.052365802 0.25716954
0.15927899 0.11859286 0.41127235
-0.098103702 -0.0056517967 0.25063768
0.13926797 0.071386158 0.53081059
-0.12533648 -0.045634545 0.34908
0.16005351 0.11681763 0.40970644
0.10157054 0.051173847 0.31135842
-0.046760965 0.065976657 0.45627061
0.14455052 0.088739924 0.47938105
-0.32264975 0.11114835 0.75385946
-0.21241051 0.052686475 0.47675124
-0.20629582 0.009063581 0.48900068
-0.12488769 0.01435637 0.29324001
0.14834084 0.030094117 0.20967592
0.12326999 0.0058948649 0.20459251
-0.07446117 0.0070222798 0.23175366
0.20414543 0.097009629 0.47366971
0.099562749 0.029955035 0.14487568
-0.17611103 -0.060262039 0.25637543
-0.059604496 -0.0051144031 0.19553275
0.075670429 0.067103796 0.50176221
0.083937787 0.063237511 0.40395197
-0.13019884 -0.023460571 0.23316498
0.064758793 0.024740331 0.17826174
0.21911216 0.081042185 0.34038541
0.069691859 0.022012996 0.17841741
0.14100102 0.00518008 0.29803041
0.034188673 0.016645471 0.17658097
-0.13069439 0.063607402 0.7243824
-0.086785302 0.033712402 0.35948074
0.21257818 0.081403643 0.40972164
0.21297228 0.10672572 0.46841538
0.14236738 -0.021953957 0.26648983
0.09579695 0.079915226 0.5123629
-0.062888935 -0.052203216 0.070230186
-0.081587881 -0.021781841 0.078619473
0.10682704 0.07288456 0.43900204
-0.14264296 0.028324457 0.48641595
-0.081593268 0.012038697 0.28380579
-0.1350071 0.13313346 0.32170627
0.025105568 0.01566642 0.21934296
0.13438909 -0.032217603 0.24505283
-0.14804326 0.0075144595 0.42263025
0.14297424 0.0023286943 0.22093518
0.15074617 0.073282503 0.45839444
0.030889992 0.066780686 0.42258006
0.097753435 0.019744063 0.2433939
-0.028452707 0.023254706 0.30377305
-0.0088695148 0.0078515895 0.21403028
-0.077018544 -0.015609981 0.12718432
0.11840322 -0.024443926 0.2474167
0.21808776 0.060532216 0.32548046
0.1242961 0.052241348 0.27393231
-0.044134837 0.027559761 0.38304052
-0.038040008 0.020116132 0.30661616
-0.17152534 -0.013856402 0.32708398
0.16200896 0.050274409 0.23472326
0.1270019 -0.028189316 0.24215864
0.22946241 0.087936834 0.45061752
-0.20105661 0.046275984 0.53652102
-0.035221465 0.043252014 0.39586887
0.011341909 0.019288983 0.096949071
-0.15263604 -0.010138422 0.23740214
0.21864039 0.11608757 0.57831275
-0.15282652 -0.03630032 0.23803706
0.02514283 0.020856708 0.11800644
-0.16163257 0.018207461 0.36202931
-0.14001609 -0.022229403 0.35364342
-0.12595673 0.0082912678 0.42070499
-0.071051449 -0.065363541 0.17019226
0.038897339 0.033735707 0.3446756
-0.095037684 0.0019087336 0.18783645
0.034236979 0.024234133 0.1870061
-0.1705157 -0.050215572 0.19022737
0.13698074 -0.022707961 0.23662129
0.10382432 0.062479932 0.36311787
0.056019865 0.022680469 0.11365965
0.11835011 0.035207782 0.17150405
-0.19304593 0.047441501 0.57529789
0.11955731 0.030533751 0.22642812
0.010922974 0.023387931 0.18147013
0.027946908 0.054274064 0.37758455
-0.046735711 0.050614364 0.39336765
-0.06531956 0.019498445 0.21201068
0.17120358 0.078959197 0.46553949
0.14452079 -0.01064338 0.24925143
-0.1805815 0.063297957 0.57341093
0.1887677 0.058582224 0.26551503
-0.059964884 0.014589022 0.17593475
0.010721345 0.044361774 0.38870409
0.19557005 0.08753901 0.45322877
-0.0094401417 0.017477507 0.17091396
-0.014489166 0.00019810835 0.24164037
-0.06514173 -0.056779753 0.073200487
0.054642785 0.024332877 0.1137628
0.045949694 0.038819876 0.28136364
0.00064622343 0.016779503 0.11086453
-0.045913935 0.052237663 0.40431711
-0.089862071 0.13761689 0.77987993
0.047777608 0.023831239 0.20950404
0.11085492 -0.10359818 0.14978439
-0.010510733 0.019744374 0.12569749
0.0011783135 0.016663872 0.11088375
0.057463732 0.029472977 0.17140809
0.14007632 0.052595012 0.25786263
0.041417781 0.023190329 0.13218124
0.14372545 0.038025539 0.22072636
0.18023321 0.054036766 0.33115417
0.14783019 0.020115139 0.2273638
-0.030964598 0.032003742 0.29857278
0.092898577 0.035084266 0.24026982
-0.049961887 0.051248148 0.43657377
0.15927923 0.058663543 0.28181428
-0.10557375 0.017986847 0.33882418
0.21409965 0.072406195 0.31943032
-0.027274586 0.01056322 0.25724515
-0.055780567 0.095483802 0.60924155
0.044523448 0.015077651 0.19890311
-0.15488814 0.062741227 0.451029
-0.051129576 0.057063468 0.45554972
-0.048320219 0.087462932 0.5450989
-0.022563254 0.03652399 0.30951971
0.14436333 0.074647948 0.39415956
0.25389603 0.072033964 0.26969701
-0.022113619 0.018928403 0.28265232
0.070147343 -0.064126119 0.0088447686
-0.049307339 0.015501629 0.23666689
-0.15155019 0.024529852 0.32109308
-0.0908546 -0.017810259 0.13488501
0.11214028 0.05279313 0.34300882
-0.048339799 0.05230945 0.38595042
0.12679602 0.00045795122 0.21339184
0.11249162 0.034867067 0.22341667
0.18372448 0.047285978 0.19031872
0.05864894 0.026622729 0.13053031
0.072954088 0.027744235 0.1403704
0.28156832 0.0789214 0.28360352
0.13504419 0.055956844 0.28259328
0.22380631 0.046498626 0.30920377
-0.011242837 -0.0024575992 0.1688462
-0.10384128 -0.023812104 0.2402688
-0.13495432 -0.052317664 0.3168672
0.079882659 0.034626957 0.221551
0.16207798 0.13897933 0.93476403
-0.010241115 0.036428921 0.30992424
0.18822159 0.055338379 0.31749603
-0.039223477 0.014000226 0.17725874
0.1209661 -0.014279451 0.23936318
0.026109187 0.016723698 0.19805229
-0.0033579271 0.032047164 0.25119525
0.081056945 0.064923316 0.39986926
0.11903688 0.022658359 0.22042374
0.064049229 0.11264983 0.77175349
-0.0039209453 0.019743057 0.11188104
-0.014728346 0.013304303 0.20200247
0.18532471 0.052693132 0.2273549
-0.0079308292 0.015513701 0.17095885
0.11271924 0.041896813 0.26549223
0.060310371 0.03076897 0.27764684
0.081373326 0.06712684 0.32400635
-0.12546793 -0.035048556 0.27401087
0.17965394 0.13181669 0.40668076
0.054117117 0.029288867 0.22238879
-0.138777 -0.04920439 0.29904452
-0.059895109 0.029536553 0.3753005
0.00032730144 0.01512545 0.1813301
-0.23167229 0.086199567 0.73337913
-0.010861766 0.097782172 0.6845994
0.13735014 -0.026232066 0.32167113
0.10396215 0.08866027 0.48985231
0.16505595 0.065291286 0.32775861
0.18661813 0.082000487 0.39513204
-0.03515191 0.017745774 0.30458018
-0.11544189 -0.060742568 0.17499034
0.27592856 0.087679282 0.34386593
0.030249214 0.030046122 0.21244791
0.16103134 0.13077827 0.82327116
0.084267341 0.095390484 0.57107365
-0.18520756 -0.01341527 0.32716739
0.019202599 0.039832629 0.32926634
-0.058355082 0.014561135 0.24064651
0.13082296 0.047759436 0.30838624
-0.030615518 0.029769197 0.29482746
0.18850432 0.084201939 0.40553096
-0.1058432 0.00084547605 0.23076822
-0.064525664 0.017164528 0.21368311
0.20866385 0.060291275 0.32604149
0.013560213 0.022125196 0.18262197
0.065024719 0.023279406 0.1201826
0.1274319 -0.0094225621 0.2565378
-0.12289492 -0.067959368 0.1693372
0.056744307 0.026554314 0.14492838
0.11644762 0.03767091 0.17096838
0.032143574 0.026839986 0.19720076
0.073103584 0.024519894 0.19583353
0.030777398 0.018579513 0.18744744
0.084751353 0.065604918 0.40518877
-0.011575777 0.041340753 0.32877573
0.27096739 0.089082316 0.39159772
-0.027613217 0.0860276 0.56318045
0.11523828 0.039915591 0.25327724
-0.059615772 -0.0090115406 0.20657255
0.068634093 0.027257634 0.18131866
0.20653214 0.063951619 0.34140536
0.098912843 0.080218032 0.46851382
-0.052305963 0.048455939 0.38177162
0.028175237 0.056849413 0.35379407
0.13375421 -0.023885537 0.23230417
0.16354465 0.045301512 0.19428527
0.19591722 0.092597656 0.46919915
0.027666559 0.032967318 0.24962394
0.07106404 0.02269177 0.17894326
-0.28114852 0.03548874 0.59809881
0.094057657 0.074171543 0.43631196
-0.032165065 0.048737817 0.38079533
0.029975211 0.061755829 0.38714772
0.035761088 0.064786687 0.37877631
-0.10750134 -0.053663407 0.12148156
0.19431546 -0.060461558 0.070724852
-0.099812426 -0.022820463 0.43897018
-0.15370819 -0.038177069 0.33346859
0.18821439 0.055331919 0.31738514
0.22428504 0.097455613 0.47916839
-0.096385881 0.025384089 0.33530039
-0.012210809 0.013727063 0.2426241
-0.1396756 -0.016256684 0.23938398
-0.1203249 0.0053256522 0.27368411
-0.05798389 0.028533325 0.2135064
-0.033239558 0.010513587 0.17631626
0.16954459 0.040614445 0.2897062
0.17111515 0.092191555 0.55784625
-0.17427471 0.014882319 0.15290727
0.074058615 0.025686726 0.13272342
-0.015388691 0.027892794 0.2325635
0.06160634 0.023207506 0.10608273
-0.036357142 0.021014031 0.21587892
-0.10562884 -0.0030859744 0.28634179
-0.010898854 0.2242033 0.96186775
0.12631619 -0.019863753 0.25185806
0.094953254 0.04905203 0.34034175
0.031727958 0.014634665 0.16824788
0.046405356 0.038329478 0.29095247
0.042524558 0.024479616 0.28685963
-0.013790754 0.015779467 0.16064012
0.068216778 0.03654021 0.20115332
-0.030307481 0.02067331 0.29105872
0.11710813 -0.031777136 0.075411826
-0.018396813 -0.022609055 0.093443006
0.10780159 -0.058221735 0.037012335
0.26482287 0.18964553 0.56252748
-0.058585227 0.090832442 0.58952802
-0.02314079 0.021787442 0.29813021
-0.074054264 0.0060877185 0.33183178
0.11170585 0.077639125 0.33630669
0.071270049 0.012209445 0.20904899
0.033903111 0.034361087 0.25508976
-0.040031545 -0.013938782 0.019860364
0.0048336387 -0.042719856 0.021761471
0.06148139 0.010623273 0.19204764
0.15743814 0.054186903 0.25258166
0.023273939 0.022096381 0.19832699
0.1208612 -0.013182734 0.25985238
0.05102326 -3.8719449e-05 0.44697315
0.070010491 0.024823911 0.17935486
-0.10935209 0.062681906 0.40771651
-0.112666 0.055411741 0.38638321
-0.099353522 -0.034395725 0.16080408
-0.11132146 0.0082437955 0.22329856
0.1452909 0.0036179472 0.2812762
-0.010086887 0.041401554 0.32854581
-0.011566961 0.01320174 0.2274311
0.15926647 0.048757344 0.22992836
0.15843481 0.054578293 0.25160983
-0.11051194 -0.061559055 0.18238109
-0.15014045 0.0071929633 0.42272192
-0.20432101 -0.0044618607 0.3309598
-0.033211023 0.056633029 0.38499746
0.015894363 -0.04675021 -0.010181485
0.0015953997 0.038400836 0.31764805
-0.012739219 0.026570987 0.24052881
-0.097916864 0.032801043 0.2062704
0.11094023 0.04226391 0.21285343
0.041606627 0.049927641 0.27583528
0.058369409 0.024801396 0.18997069
0.18815583 0.085201003 0.32845733
0.10537583 0.025674749 0.22803634
0.078969389 0.027278112 0.12219197
-0.071129955 0.036192887 0.39815071
-0.29524612 0.13357861 0.73061264
-0.13019454 0.010148763 0.42462844
-0.14495192 0.012970998 0.35198769
-0.082609586 0.0045294217 0.27420205
-0.10261951 -0.020345645 0.22636525
-0.10183457 -0.03920025 0.00086816814
-0.030677009 0.10112797 0.66434199
0.075402305 0.059529267 0.3785156
0.038826868 0.020212049 0.18765536
-0.14388816 -0.020114927 0.18254913
0.18792719 0.052649055 0.22718908
0.031937785 0.041150458 0.28341761
-0.076285034 0.004880161 0.20313735
-0.075164214 0.0074843597 0.21682428
-0.028258368 0.024578515 0.25634333
-0.22446483 0.082979269 0.72649282
0.072828859 0.021272395 0.17985077
-0.059717789 0.0032211463 0.20823224
0.075614072 0.08320345 0.47958696
-0.16683848 0.035060376 0.4127571
0.14560458 -0.0079766531 0.22610858
0.14880341 0.061544422 0.32197246
0.13160118 0.059694953 0.30993459
0.024655649 0.059018143 0.42551762
-0.14804661 0.07163287 0.78004616
-0.031768411 0.030681795 0.29037002
-0.068325527 0.003805361 0.17064197
-0.12362035 0.016691659 0.17794043
-0.097231127 0.0021480403 0.18827102
0.0076417844 0.03871873 0.34399003
0.19080397 0.060759529 0.25678965
0.11939245 0.040647008 0.2113141
-0.031488877 0.031089339 0.29370806
-0.032204397 0.031200141 0.29322463
0.023079805 0.035687163 0.30556428
0.22118668 0.08806774 0.48502362
-0.090542018 0.011161602 0.34381381
0.055709746 -0.0049885712 0.44071493
-0.16399667 -0.0017912824 0.32869887
-0.10696738 0.0018709458 0.18813965
0.03925528 0.042918939 0.29792643
0.082535319 0.058137525 0.39918542
-0.062001117 0.0083580101 0.22234508
0.041162096 0.024953587 0.28323823
-0.15963744 0.011343305 0.26833183
0.28804219 0.01295331 0.19874373
-0.1359802 -0.03627459 0.42107171
0.20751753 0.088437341 0.44687226
-0.070093304 0.0032957261 0.16111599
0.07203009 0.086879648 0.50863129
0.22547576 0.1123031 0.562464
-0.15286434 -0.045594338 0.1905956
0.024404345 0.021458384 0.11793233
-0.13695814 -0.0001681437 0.28922552
-0.15454918 -0.021557998 0.18604439
0.011163792 0.032382004 0.3368839
-0.11399234 -0.017692624 0.20860681
0.09923397 0.032682892 0.18014525
-0.031065371 -0.0091054458 0.12000018
0.15463679 0.059673343 0.30827716
0.0037925502 0.090400524 0.5383088
0.12807149 -0.030147443 0.2440957
-0.16100091 0.00042261128 0.15477702
-0.045414973 0.016043482 0.2339413
-0.14191717 -0.016409071 0.18167114
-0.025637519 0.023387285 0.25514761
-0.015517148 0.040916339 0.29837632
0.049742967 0.098890319 0.67832488
0.025219362 0.021146337 0.11779832
-0.014780072 0.025588538 0.21133754
0.060447335 0.024395797 0.20806326
-0.055056021 0.019754473 0.1814658
0.057193391 0.025948348 0.19060883
0.1194091 0.040218879 0.21076407
0.13240376 0.058245022 0.29456389
0.035939317 0.037499595 0.35916129
0.16390723 0.17029196 1.0295632
-0.088972479 0.045585416 0.40087855
0.08421585 0.011176441 0.22857681
-0.046586517 0.0062496108 0.22950464
